ply
format ascii 1.0
element vertex 1671
property float x
property float y
property float z
end_header
-0.048521 -0.017402 -0.123735
-0.196404 -0.285087 -0.227536
-0.246526 -0.283790 0.222581
-0.087104 -0.152271 0.049718
-0.184099 0.010179 -0.246110
0.187620 -0.284627 0.226489
0.172139 -0.018661 0.246110
-0.143440 0.112122 -0.188742
-0.090935 -0.088480 -0.246110
0.128536 0.017822 0.062380
-0.078076 -0.034918 0.017412
-0.174331 0.181611 -0.177098
0.031726 -0.111656 0.024425
0.184246 0.028904 -0.145692
-0.274728 0.155168 0.232858
0.198442 -0.047910 0.105849
-0.094059 -0.286204 0.228517
-0.289441 -0.234460 0.226547
-0.279020 0.162227 -0.204457
0.078861 -0.093634 -0.083489
-0.109802 -0.116128 -0.175097
-0.288662 0.259567 0.022463
0.195738 -0.284642 -0.185110
0.053629 -0.284368 0.226955
-0.036466 -0.128810 -0.217680
0.233942 0.038791 0.004763
-0.116067 0.050545 0.148929
0.006137 -0.006528 -0.039678
0.115968 -0.079445 -0.003112
-0.209077 0.259774 -0.104947
-0.176228 -0.006859 -0.172763
-0.002251 -0.124648 -0.148705
-0.133844 -0.076581 -0.056993
0.061797 0.004545 -0.184890
0.054914 -0.102790 0.155419
0.064666 -0.293560 -0.184560
-0.045969 -0.085821 0.246110
-0.138092 0.100091 0.085541
-0.211734 0.051545 -0.014597
0.293690 -0.011490 0.231832
-0.237561 0.094030 0.208496
-0.235257 0.292032 0.208946
-0.321328 0.234087 0.140379
-0.126070 -0.089368 0.241044
-0.173532 0.162416 -0.246110
-0.310222 0.213554 0.224828
-0.042340 -0.115307 -0.078149
-0.053366 -0.293450 -0.206348
0.243266 -0.030770 -0.205674
0.230178 -0.035775 0.114005
0.120691 0.016261 0.023554
-0.017428 -0.011216 -0.041216
-0.160834 0.151249 -0.045988
0.266295 0.045227 -0.132982
0.228403 -0.036454 -0.073973
0.318996 -0.000663 -0.167858
-0.190553 0.016705 0.220211
0.301552 -0.008484 0.053552
0.163974 -0.061089 0.094368
-0.236803 0.291093 0.047298
-0.091168 -0.005466 0.167286
-0.118797 -0.101332 0.005626
-0.171449 0.175128 0.086299
-0.048087 -0.102380 0.123867
-0.081203 -0.154232 0.135188
-0.200869 0.241310 0.221261
-0.010243 -0.127704 -0.003029
-0.021404 -0.012007 -0.182888
-0.223442 0.070807 0.184099
-0.002716 -0.013744 0.246110
-0.280475 0.164621 -0.120416
-0.217982 0.279807 -0.062553
0.037624 -0.000264 0.034186
-0.129219 0.080130 0.238162
-0.042561 -0.226737 0.203427
0.198743 0.031789 -0.034425
0.152178 0.010056 0.246110
0.075912 -0.094761 -0.220715
-0.321260 0.235627 -0.086552
0.047437 -0.105649 -0.138070
-0.105802 -0.122707 -0.106938
0.197919 0.031625 0.194814
-0.275452 0.156359 0.022530
0.290950 0.050132 -0.222852
-0.246652 0.285105 -0.161386
0.062582 -0.099858 0.084140
-0.106773 0.029638 0.046140
0.134568 -0.001874 -0.246110
-0.220949 0.066705 0.081716
-0.137553 0.050232 -0.246110
0.106131 0.013364 0.113147
-0.114717 0.047509 -0.178612
0.125972 -0.059924 0.246110
0.238455 -0.285022 -0.227536
-0.047443 -0.017188 -0.019482
-0.188993 0.014137 0.093252
-0.273541 0.153215 0.126111
-0.252994 0.119416 -0.218785
-0.198634 0.012118 -0.219048
-0.164334 0.159124 0.169578
-0.173588 -0.028037 0.182081
0.310504 0.040168 0.150936
0.202608 0.032557 -0.201361
-0.218333 0.062401 -0.201568
-0.311752 0.216072 -0.211263
-0.154956 -0.041851 0.066699
-0.102456 -0.024238 -0.246110
0.092938 -0.088251 0.176637
0.071377 0.006450 -0.091328
-0.064508 -0.065439 -0.073935
-0.217738 0.279258 -0.167136
0.291580 0.050257 -0.024249
0.108797 -0.082187 -0.046219
-0.124142 -0.092539 -0.208413
-0.093880 -0.164309 -0.204318
0.255292 0.014598 -0.246110
-0.191237 0.219643 -0.148974
0.189546 0.029959 0.119359
-0.313734 0.219332 -0.053241
-0.239178 0.289649 0.113877
0.305554 0.049875 0.093551
-0.189082 0.120845 0.246110
0.149954 -0.066450 0.059350
-0.027972 -0.134483 0.240441
-0.147831 -0.071450 0.188722
-0.153184 0.030075 0.246110
-0.133895 0.090649 0.030625
-0.117262 0.053232 -0.052348
0.144065 -0.068702 0.157397
-0.048847 -0.017467 0.149606
0.006481 -0.131252 0.226703
-0.151333 -0.050402 -0.181100
-0.055947 -0.084699 0.059343
-0.238262 0.095183 -0.118456
-0.108439 -0.174188 0.205299
-0.122877 -0.094619 0.134825
-0.034349 -0.257635 -0.181100
-0.072574 -0.047294 -0.160853
0.184188 -0.053360 -0.099140
-0.300627 -0.240524 -0.216848
-0.160666 -0.032460 -0.085386
-0.139379 0.102985 -0.024054
-0.297275 0.254330 0.206721
-0.225340 0.261189 -0.246110
0.035224 -0.091803 0.246110
-0.243371 0.287100 -0.015844
0.092582 0.010669 -0.152289
-0.057891 -0.080325 -0.201414
0.027462 -0.002286 -0.074585
-0.098885 -0.048952 0.246110
0.177561 0.027575 0.019734
0.313298 0.031592 -0.094512
-0.057056 -0.145604 0.121691
0.072963 -0.284406 -0.225445
-0.197251 -0.205870 -0.227536
-0.155200 0.138576 -0.170374
0.026913 -0.113497 0.137829
0.269123 0.045790 0.185383
-0.079413 -0.154035 0.006150
-0.246289 0.108387 -0.098520
0.212389 -0.042577 -0.146509
0.041958 0.000598 0.106327
0.185671 -0.285918 -0.227536
-0.184089 0.203563 -0.240043
0.080322 0.008230 0.226971
-0.300869 0.198169 0.090508
0.062220 0.004629 0.027600
0.062019 -0.031835 0.246110
0.078281 -0.093855 0.019108
-0.203471 0.037954 -0.102692
-0.097355 0.008450 -0.091985
-0.163619 0.157513 -0.093557
-0.179095 0.192328 0.015533
-0.053588 -0.144278 -0.033362
0.287459 -0.013872 -0.064148
-0.221377 0.210249 0.246110
0.037488 -0.034470 -0.246110
0.303858 -0.007602 -0.108154
0.114403 -0.089986 -0.200329
-0.116585 0.004152 0.246110
-0.285147 0.261703 -0.127051
-0.295843 0.189902 0.002344
0.230345 -0.035711 0.219689
0.169114 -0.044282 -0.246110
-0.289723 0.258922 0.135488
0.041968 -0.091278 -0.246110
0.204853 -0.288387 0.182081
0.291795 -0.012214 -0.028012
0.117669 0.015660 -0.057821
-0.054327 -0.018557 0.098181
-0.142378 0.109732 -0.047230
0.253745 0.005767 0.246110
-0.064502 -0.065454 -0.027545
-0.141174 0.107023 0.129759
-0.247736 0.110767 0.094764
-0.100915 -0.144914 0.182081
-0.060718 -0.147004 -0.097728
-0.263468 0.136645 0.209684
0.222389 -0.001068 0.246110
0.070324 -0.096898 0.217414
0.074119 -0.284408 0.196371
-0.010918 -0.009921 -0.088018
0.229928 0.037992 0.086300
-0.074837 -0.042205 -0.121884
0.283211 0.048593 -0.078046
-0.135794 -0.003179 -0.246110
-0.017020 -0.140238 -0.190534
-0.219617 0.283484 0.160889
0.099176 0.011981 -0.216864
-0.186159 0.208220 0.123114
0.029549 -0.112489 -0.009203
-0.290002 0.180293 -0.171205
0.033237 -0.289924 0.182081
0.006287 -0.006498 0.011398
0.258377 -0.024992 0.075431
0.132011 -0.073311 -0.118693
0.321124 0.003651 0.189551
0.147562 -0.067364 0.207913
-0.298108 0.253824 -0.166369
-0.008852 -0.137114 0.187556
0.046979 -0.105824 -0.174537
0.013101 -0.005143 0.080623
0.181501 0.028358 -0.083324
-0.195928 0.230196 0.000638
0.007041 -0.021257 -0.246110
-0.294174 0.256216 -0.016015
0.261139 0.044202 0.054805
-0.268518 0.144953 -0.027038
-0.050713 -0.096473 -0.182139
-0.168083 -0.020259 0.135356
-0.169654 0.171092 0.221993
0.253153 -0.026990 -0.157928
-0.165126 0.160906 -0.124089
-0.254426 0.280379 -0.086740
0.174528 -0.057053 0.004350
-0.075987 -0.039617 0.205115
0.309597 0.042952 -0.180321
-0.054302 -0.101457 -0.246110
0.318097 0.016864 0.067514
-0.135876 0.095106 0.177011
-0.129545 0.080864 -0.152833
-0.096454 0.006424 -0.015661
-0.045489 -0.108224 0.206899
0.241489 -0.293560 0.226591
-0.076477 -0.024856 0.061290
-0.116761 -0.122560 0.215173
0.159669 -0.068411 -0.197173
0.163256 0.024729 -0.220435
0.289147 0.033692 0.246110
0.209888 0.034006 -0.109832
-0.260404 -0.223357 0.227143
-0.018877 -0.131006 0.138283
-0.130418 -0.293301 0.206116
-0.271461 0.154434 -0.246110
-0.116019 0.050437 -0.105566
-0.206068 0.253006 0.128848
0.062397 -0.074212 0.246110
-0.259894 0.130766 0.160195
0.109011 -0.293560 -0.181692
-0.272805 0.269207 0.209539
-0.092850 -0.001684 0.121825
-0.228839 0.272783 0.246110
-0.232800 0.108814 0.246110
-0.121333 -0.097159 -0.140585
0.305062 0.050213 -0.106682
-0.168019 0.086295 -0.246110
0.033917 -0.293560 -0.209887
-0.006873 -0.009116 0.177846
0.089297 -0.089643 -0.117154
-0.213747 0.036978 0.203465
-0.221835 0.068162 0.038639
-0.191137 0.017664 -0.052292
0.293342 0.043083 -0.246110
-0.084428 -0.156070 0.201428
0.054707 0.003134 -0.143459
0.070799 -0.004841 -0.246110
-0.242621 -0.292604 -0.227536
0.140026 -0.284602 0.228517
0.226159 0.037243 -0.237641
0.155815 0.023248 0.132804
0.295605 -0.009800 -0.246110
-0.224358 0.149145 -0.246110
-0.137936 -0.284523 -0.204318
-0.112932 -0.110979 -0.221559
-0.319357 0.240187 -0.000436
-0.233528 0.087395 -0.168798
-0.282325 0.187772 -0.246110
0.006657 -0.285267 0.228517
-0.183402 0.202018 0.179108
-0.135045 -0.066993 0.246110
-0.287886 -0.292270 0.216504
0.202532 -0.046346 -0.031854
-0.317200 0.225032 0.186383
0.147596 0.021613 -0.019118
-0.098402 -0.134881 0.105073
-0.136531 -0.177275 -0.227536
0.158344 -0.286785 0.182081
-0.043770 -0.112091 0.028552
-0.121707 0.063231 0.076457
-0.274101 0.268418 0.063410
-0.022141 -0.132254 -0.058568
-0.207481 -0.283865 0.213506
-0.236929 0.092990 0.164641
-0.171747 -0.014231 -0.127143
-0.093604 -0.293372 -0.208757
-0.107206 -0.120398 0.036691
-0.217696 0.061353 -0.060499
-0.072170 -0.151383 0.089457
0.090960 -0.089007 0.136068
-0.230036 0.293539 -0.221024
-0.053418 -0.284162 0.211716
-0.216739 0.059779 0.132885
0.040450 0.000298 0.240651
0.230819 -0.035530 0.174741
0.309667 -0.005381 0.006374
-0.062161 -0.050035 -0.246110
-0.055385 -0.154907 -0.193408
0.107979 0.013732 0.200912
0.182260 -0.054097 0.236243
-0.139361 -0.067504 -0.014267
-0.037424 -0.126367 -0.128001
-0.090507 -0.106596 0.246110
-0.185670 -0.204724 0.207522
-0.262367 0.191410 0.246110
-0.287346 0.175924 0.065022
-0.020403 -0.112644 -0.246110
0.021708 -0.115487 0.065019
0.289869 0.049917 0.133039
0.219444 0.035907 -0.158835
0.130522 -0.007059 0.246110
0.036625 -0.000463 0.153687
-0.159265 -0.034763 -0.050473
0.238578 0.039713 0.160265
-0.011162 -0.009970 -0.219549
0.268021 -0.021305 0.035840
-0.211897 0.132721 -0.246110
-0.083935 -0.163308 -0.227536
-0.114416 -0.108538 -0.064643
-0.005707 -0.097863 0.246110
-0.202957 0.246007 0.040309
-0.089473 -0.009281 -0.126274
-0.221741 0.068007 -0.134784
0.222515 -0.038705 0.069655
-0.268144 0.144337 -0.176665
-0.131145 0.084463 -0.202288
-0.135553 -0.073769 0.098729
0.174785 0.027022 0.160995
-0.045129 -0.150986 0.214081
-0.230134 0.293544 0.141888
-0.161238 0.152158 -0.210110
-0.107025 0.030204 0.169189
-0.097355 0.008450 -0.182275
-0.291779 0.183217 0.208134
-0.059136 -0.077525 -0.113947
-0.130447 -0.082167 0.038609
-0.287004 0.175361 0.039698
-0.176650 -0.006165 0.231863
-0.050082 -0.142937 -0.000800
0.126418 0.017400 0.139439
0.070233 0.006223 -0.067549
-0.305500 0.205786 -0.104537
0.315666 -0.003059 -0.201527
-0.193354 0.051776 -0.246110
-0.131161 -0.080993 -0.084967
0.313847 0.029908 -0.004434
-0.062234 -0.070556 0.222644
-0.158060 0.145009 0.060440
-0.064168 -0.020515 0.028426
-0.258883 0.238637 -0.246110
0.055999 -0.107844 0.182081
-0.311985 0.245388 0.055112
-0.180660 -0.017448 -0.214494
0.047080 -0.105785 -0.094199
0.099810 -0.293560 0.217083
-0.305812 0.249141 -0.201840
-0.220936 0.066682 -0.166870
-0.179677 0.193639 -0.016627
-0.090571 -0.006810 -0.218465
-0.187435 0.211090 -0.201900
-0.051224 -0.095322 0.154312
-0.248779 0.112483 -0.013815
-0.090483 -0.007007 0.052522
0.156692 -0.293560 -0.189901
-0.057128 -0.082042 0.008663
-0.201266 0.242204 -0.241978
0.277425 0.047441 -0.190928
-0.320908 0.231715 0.086352
-0.280290 0.164317 0.190154
0.020816 -0.003608 -0.185772
0.249602 -0.028348 -0.050318
-0.270652 0.148463 -0.068154
0.145822 0.021260 -0.141519
0.234827 -0.029859 -0.246110
-0.228725 0.061616 0.225272
0.002309 -0.132847 -0.224819
0.104577 0.013055 -0.020596
-0.031554 -0.014027 0.078924
-0.194634 0.033396 0.246110
-0.013430 -0.010421 -0.142864
0.290317 -0.012780 -0.204359
-0.154839 -0.042043 0.214563
-0.255993 0.279427 0.082551
-0.176244 0.185915 0.144377
0.183326 0.028722 0.232842
-0.148939 0.124491 -0.063524
-0.074079 -0.043911 -0.077177
0.201089 -0.042846 -0.246110
-0.235662 0.090907 -0.230722
-0.176530 0.186559 -0.054499
0.268545 -0.021104 0.173314
-0.143758 -0.078149 -0.182560
-0.291668 0.183033 0.127956
-0.055194 -0.086392 0.101721
-0.227792 0.077960 -0.017087
0.319210 0.013450 0.244422
-0.138751 0.101572 0.242631
0.231419 0.038289 0.193717
-0.056866 -0.141615 -0.246110
-0.202504 0.244989 -0.175130
-0.035071 -0.076981 -0.246110
-0.200711 0.033414 0.063257
-0.100756 0.016102 -0.051553
-0.036419 -0.129027 -0.164811
-0.263244 0.136277 -0.116885
0.284576 -0.014975 0.197772
0.316397 0.022082 0.028725
0.016658 -0.117418 -0.183979
-0.029640 -0.135121 0.096761
-0.202437 0.244837 -0.068839
-0.092541 -0.150572 -0.181100
-0.045262 -0.226552 -0.204318
-0.197594 0.233943 0.097955
-0.151960 0.131288 0.145187
-0.130521 -0.082046 -0.244832
-0.078385 -0.034222 0.136386
-0.005773 -0.125995 0.054181
-0.204578 0.249654 0.183880
-0.199540 0.013608 0.189378
-0.256070 0.279380 0.018855
0.022180 -0.115306 -0.121781
-0.107400 -0.137957 -0.212075
-0.176294 0.186028 -0.143276
-0.178687 0.191412 0.052220
-0.178075 -0.292921 -0.204318
0.274372 0.046834 0.019729
0.281970 -0.015971 -0.155023
-0.018980 -0.011525 0.002416
-0.149177 -0.069237 -0.212865
0.164703 0.025017 0.072185
0.076175 -0.094661 -0.018811
-0.000162 -0.293552 -0.223194
-0.024569 -0.133182 -0.099217
-0.223748 0.071308 -0.094529
0.316655 -0.002589 -0.083255
0.090756 -0.089085 -0.245733
0.229143 -0.036170 -0.107856
-0.169164 -0.036359 -0.210962
-0.052364 -0.092759 -0.040187
-0.285630 0.173102 -0.085874
0.315307 0.025426 0.108887
0.229696 -0.293560 -0.193770
-0.196556 0.008700 -0.186208
-0.154306 0.136565 -0.013078
0.242055 0.040405 -0.032038
-0.027643 -0.268338 0.182081
-0.153223 0.134128 0.088130
0.031349 -0.050851 0.246110
-0.309130 0.247124 -0.119914
0.244550 -0.030280 0.146402
-0.149813 0.067167 0.246110
-0.075225 -0.185146 -0.181100
0.117455 -0.078877 -0.093993
-0.166332 0.149832 0.246110
0.214121 -0.041915 -0.181420
0.115918 -0.079464 0.203994
-0.101159 -0.130345 0.149341
0.075499 0.007271 0.120854
0.141387 -0.069725 -0.001286
-0.095493 0.004261 0.019006
0.031130 -0.111884 -0.160691
-0.318747 0.227578 -0.177005
-0.067007 -0.021079 -0.230381
0.076384 -0.094581 -0.157707
-0.086231 -0.016573 0.238892
0.009200 -0.120269 -0.034681
0.267688 0.045504 0.088763
0.194070 -0.049581 0.055294
-0.307215 0.248288 -0.057854
-0.199619 0.238498 -0.120144
0.215677 -0.284681 0.208510
-0.272820 -0.286089 -0.204318
-0.208409 0.258272 -0.033924
-0.134085 -0.094062 0.185084
-0.260371 0.276765 -0.193962
-0.058898 -0.078061 0.136373
0.270561 -0.284786 -0.217681
-0.260770 0.132207 0.119832
-0.140920 0.106452 0.006073
0.061644 -0.100217 0.120225
0.160400 0.024161 0.097696
-0.209740 0.169095 0.246110
-0.095371 -0.139865 -0.078681
-0.056465 -0.145378 -0.065227
-0.061102 -0.073101 -0.228163
-0.083099 -0.023619 0.091242
0.103889 0.012919 0.237043
0.222318 0.036478 0.117438
0.001600 -0.123176 0.163666
-0.207501 0.044584 -0.224522
0.151075 0.022306 0.214086
-0.220865 0.286293 0.087242
-0.083090 -0.023638 -0.029519
0.204249 -0.045689 -0.066184
-0.117034 0.052719 0.215031
-0.120074 0.059558 -0.223327
-0.293521 0.256613 0.169009
0.172778 -0.057723 0.148139
-0.058692 -0.052667 0.246110
-0.226119 0.292635 0.014056
0.053313 -0.103402 0.002688
-0.039196 -0.122379 0.171323
0.115812 -0.082054 -0.227536
0.313306 -0.003989 -0.140653
0.091719 -0.098660 -0.192672
-0.296701 0.191313 0.243318
0.029696 -0.112433 0.229368
0.061832 -0.054074 -0.246110
-0.206070 0.042229 0.160735
0.134339 -0.042140 -0.246110
0.035215 -0.110322 0.100949
-0.220761 0.286058 -0.131468
0.261729 0.044319 -0.231080
0.048518 -0.105236 -0.208596
-0.056879 -0.115102 0.246110
0.296861 -0.010277 0.082691
-0.255519 0.123570 -0.040832
-0.119064 0.057285 0.024223
-0.048191 -0.102144 0.065782
-0.169156 -0.018493 0.101601
-0.150851 -0.048604 0.160959
0.204410 -0.045628 0.156397
-0.078212 -0.034542 0.154608
-0.234647 0.292369 -0.196501
-0.104295 0.024063 0.114541
0.172699 0.026607 -0.178039
-0.144907 0.115422 0.050304
0.139530 -0.080378 -0.216180
-0.066169 -0.020913 -0.048634
0.304587 0.050521 -0.141243
0.315074 0.026143 -0.219777
-0.283239 0.169168 -0.020392
0.212851 -0.032367 0.246110
-0.281282 0.165950 0.097130
-0.144418 -0.188951 0.207385
0.052759 0.002747 0.064070
-0.070256 -0.150651 0.184934
0.302008 0.051514 -0.003410
-0.091845 -0.053397 -0.246110
-0.249142 0.113080 0.185868
-0.258607 0.128650 0.010982
-0.021684 -0.038750 -0.246110
-0.107985 0.032364 -0.070734
-0.154389 0.136751 0.192156
-0.251151 0.116384 0.056147
-0.122197 0.064335 0.177419
-0.211986 0.266318 -0.142510
-0.085818 -0.153122 -0.117022
-0.119747 0.029015 0.246110
-0.126188 0.073312 -0.124942
-0.024537 -0.284218 -0.204603
-0.207612 0.044765 0.023480
0.261851 0.044343 0.225878
-0.291789 0.245716 0.246110
-0.195882 0.230091 0.192059
0.280981 -0.016350 0.110408
-0.221356 -0.218370 -0.217016
0.022993 -0.284310 -0.185517
0.120662 -0.077650 0.046385
0.022731 -0.003227 0.124685
-0.193306 0.120606 -0.246110
0.169114 0.025894 -0.050956
-0.057672 -0.145839 0.237784
-0.068054 -0.057463 0.068469
-0.168036 0.167450 0.022622
-0.039198 -0.138064 0.032882
-0.109063 0.034789 0.013552
-0.251350 0.116712 0.223241
0.234850 0.038972 -0.127733
-0.116374 0.040305 -0.246110
0.189412 0.029932 -0.242434
0.303811 0.050903 0.181192
0.087013 0.009561 0.040824
-0.030673 -0.013851 0.176855
0.057186 0.003627 0.196663
-0.121010 -0.097691 -0.024492
0.206188 0.027490 0.246110
0.253262 0.042634 -0.104390
-0.073571 -0.045052 -0.219763
0.006493 -0.006457 0.215395
-0.296481 0.190950 -0.197646
-0.208683 0.046527 0.102180
-0.174343 -0.009961 0.069387
-0.115070 -0.167787 0.227029
-0.305141 -0.281355 -0.215099
-0.118683 -0.174478 -0.204318
-0.259364 0.277378 -0.122624
0.308993 0.044805 -0.057762
0.159521 -0.062792 0.187566
0.254865 0.042953 -0.171005
0.133581 -0.072710 -0.181238
-0.197037 0.027369 0.016475
-0.233729 0.087726 0.046938
-0.128963 0.079553 -0.232825
-0.202701 0.036688 -0.188560
-0.129139 0.079951 -0.069157
0.218667 0.000564 -0.246110
-0.258532 0.277883 0.233894
-0.162254 -0.029847 -0.158898
0.005067 -0.121850 0.022657
-0.025366 -0.293504 0.228464
0.320010 0.010992 0.147165
0.278008 -0.017486 0.008186
0.048793 -0.105131 0.049004
-0.297107 0.191980 -0.129727
0.002165 -0.284632 0.182081
0.037217 -0.000345 -0.040232
-0.277616 0.159919 0.158737
-0.286424 0.260927 -0.080386
0.102645 -0.003300 -0.246110
-0.252537 0.127435 -0.246110
-0.001791 -0.124472 -0.113023
-0.168607 0.054061 0.246110
-0.117691 0.054197 -0.142030
0.132353 -0.083122 0.227562
-0.142593 -0.080066 0.215580
-0.135589 -0.073709 0.067124
-0.232430 0.085590 0.107137
0.112972 -0.080591 0.023789
-0.073520 -0.045167 -0.045577
-0.272455 0.151430 -0.152714
-0.062231 -0.070562 -0.147565
-0.179113 -0.002115 -0.203378
0.087089 -0.284433 -0.204347
-0.093912 0.000707 -0.148819
-0.065083 -0.020697 0.176703
-0.194439 0.226846 0.138855
0.136448 -0.071614 -0.032280
0.128181 -0.074775 0.185333
-0.019286 -0.141104 -0.224430
-0.153909 -0.043574 0.094626
-0.301451 0.199125 -0.029359
-0.052201 -0.093126 0.188274
-0.099784 0.005802 -0.246110
0.023602 -0.284311 0.207694
-0.313400 0.218782 0.068133
-0.087261 -0.152145 0.164443
-0.221104 -0.283839 -0.209796
0.320877 0.008326 -0.016035
-0.318125 0.241503 0.221870
0.237665 0.039531 0.035632
0.216095 0.035241 0.147581
-0.228758 0.240159 0.246110
-0.175942 -0.007330 0.162456
0.198466 -0.047901 0.003742
-0.105144 0.025973 -0.119148
0.101729 -0.292984 -0.227536
0.279851 0.047924 -0.160469
0.009218 -0.120263 0.197469
0.155173 -0.064454 0.023466
-0.160862 0.056353 -0.246110
-0.089112 -0.010092 0.197274
-0.182959 -0.200136 -0.204318
-0.188479 0.184917 0.246110
0.094456 -0.097613 0.198859
0.180920 -0.054609 -0.182997
0.132429 0.018596 -0.223475
-0.256231 0.124742 -0.076089
-0.061426 -0.072372 -0.174303
-0.007931 -0.009327 0.147610
-0.297812 0.254004 -0.236147
0.224860 -0.037808 -0.012923
-0.083031 -0.023772 -0.179371
-0.138712 -0.290330 0.228517
-0.273467 0.268804 0.003234
0.200003 -0.293560 -0.211405
-0.261446 -0.225408 -0.204318
-0.040802 -0.118767 -0.044605
-0.037572 -0.126034 -0.195300
-0.105893 -0.122557 -0.146226
0.137502 -0.071211 0.127843
0.037136 -0.000361 -0.214220
-0.320890 0.237282 -0.230835
0.315281 0.025507 -0.121343
-0.069605 -0.053975 0.038727
-0.177667 -0.004492 -0.042467
0.272723 0.043437 0.246110
-0.165084 -0.025191 -0.187839
-0.077847 -0.287342 0.205299
0.206565 0.033345 0.016994
-0.175394 0.184004 0.202487
-0.258908 0.277655 0.128861
-0.100575 0.015694 0.143099
-0.244154 0.104875 -0.141812
0.153345 0.022757 0.046595
-0.196343 0.026228 -0.025898
-0.165485 0.161713 -0.156603
-0.128366 -0.033559 0.246110
0.005567 -0.006642 -0.165120
0.110790 0.014291 -0.189662
-0.216071 0.275507 0.061288
-0.161312 -0.283954 -0.220226
0.257262 -0.025419 0.195388
-0.305759 0.206212 0.138844
0.003380 -0.007077 -0.062574
-0.177098 0.187837 -0.214301
-0.110056 -0.115711 0.100652
0.123287 0.016777 -0.080060
-0.048675 -0.101057 -0.223479
0.030401 -0.026295 0.246110
-0.198977 -0.202686 0.228517
0.246633 -0.020982 0.246110
0.203090 -0.046133 0.216697
0.314646 -0.003477 0.218778
0.016346 -0.004497 0.051529
-0.221845 0.068179 0.011180
0.185081 -0.053018 -0.149793
0.052594 -0.113620 0.228237
-0.085373 -0.153348 -0.022484
-0.213381 0.269457 0.225305
-0.053500 -0.018392 -0.190473
-0.129130 0.079930 -0.009277
-0.244679 0.105738 -0.195966
-0.214711 0.140601 0.246110
0.272194 0.046401 -0.051573
0.169833 -0.058849 -0.223637
0.318082 0.016910 -0.182949
-0.008805 -0.009501 -0.018117
-0.253983 0.121043 -0.181414
-0.048341 -0.101809 -0.111546
-0.106358 -0.121793 -0.007453
0.309078 0.044543 0.065498
-0.070870 -0.021848 -0.161331
0.088631 0.009883 -0.045793
-0.243048 0.282475 -0.246110
-0.137842 0.099528 0.205098
0.176705 -0.284606 -0.206516
-0.146440 0.118871 0.105112
-0.176490 0.186470 -0.116506
-0.022614 -0.132434 0.212738
0.081389 0.008442 -0.001666
-0.148965 -0.051707 0.033615
-0.137877 -0.069946 0.014096
-0.133332 -0.077422 -0.156771
-0.194126 0.177491 -0.246110
0.243129 0.036410 0.246110
-0.030956 -0.013908 0.109691
-0.174265 0.181463 -0.082216
-0.027299 -0.134226 -0.024894
-0.004983 -0.008740 -0.114548
-0.040576 -0.015821 -0.057051
0.197092 0.031460 0.044117
-0.251405 0.130361 0.246110
-0.241642 0.288151 -0.044223
0.085865 -0.062261 0.246110
0.311327 0.037642 0.239644
0.187669 -0.284627 0.198976
-0.214545 0.056169 0.242617
0.033429 -0.062105 -0.246110
0.159511 -0.287254 -0.227536
-0.025234 -0.012769 0.217957
-0.063282 -0.157927 -0.215915
-0.063361 -0.210399 -0.203582
-0.207436 -0.203104 -0.207467
-0.132929 -0.078084 0.166462
-0.073772 -0.044601 0.229289
-0.182006 0.198877 0.096849
-0.250924 0.169761 -0.246110
-0.072351 -0.047796 -0.188961
-0.304513 -0.258435 0.228517
-0.266212 0.141160 0.043025
-0.078185 -0.284114 -0.224505
-0.035798 -0.014871 -0.097894
-0.111921 -0.130521 0.193952
-0.261412 -0.292332 0.205299
-0.126230 -0.106982 -0.190477
0.073995 -0.095494 0.046290
0.146262 0.021348 0.008626
-0.151304 0.129810 -0.142215
-0.086355 -0.171577 0.182081
0.278657 0.019540 -0.246110
-0.092880 -0.143964 0.077561
0.239141 -0.032348 -0.132539
0.176621 -0.056253 0.120081
0.265719 0.045113 -0.016379
0.056647 -0.293560 -0.210964
-0.062912 -0.147843 0.060457
-0.184175 0.203757 -0.170450
-0.112461 -0.111754 -0.245835
-0.123800 -0.093101 0.213321
-0.109077 -0.165495 -0.227400
-0.304995 0.204957 0.198040
-0.035918 -0.014895 -0.215724
0.321141 0.003727 0.090943
0.210523 0.034132 -0.087022
0.172900 -0.057676 -0.121515
0.150361 -0.066294 0.240814
0.196922 -0.048491 0.079529
-0.044142 -0.016531 0.041677
-0.076070 -0.152874 -0.051481
-0.068296 -0.149902 -0.173133
0.117314 -0.078930 0.140767
-0.154875 -0.041985 -0.137813
-0.318049 0.226428 -0.116014
-0.043611 -0.140463 0.144186
0.189551 0.029960 0.089216
-0.142550 -0.062259 -0.100568
-0.092720 -0.001975 0.080209
-0.209066 0.194796 -0.246110
-0.277666 -0.229958 -0.221210
0.030796 -0.001623 0.001609
-0.234928 0.089699 -0.037282
-0.047859 -0.102893 0.233033
-0.188105 0.212597 0.037289
-0.219380 0.282952 -0.027610
0.093794 -0.087923 0.219266
0.083780 -0.091753 -0.049744
-0.114099 -0.293332 0.217708
-0.212072 0.266513 0.017590
-0.217104 0.277831 0.194983
0.246320 -0.029602 0.049443
-0.086962 -0.014929 -0.097879
-0.182496 0.003451 0.198942
-0.063401 -0.148030 0.025612
0.031886 -0.001406 0.085123
-0.036933 -0.127477 0.123193
0.202829 0.032601 0.168482
0.091752 -0.005196 0.246110
-0.056813 -0.219150 0.182081
-0.219694 0.064640 -0.234363
-0.070491 -0.051982 -0.001088
-0.163937 -0.044956 0.183013
-0.308274 0.247644 0.120021
-0.123121 -0.056884 -0.246110
-0.184587 0.006890 -0.137155
0.122463 0.016614 -0.162400
0.147610 0.021616 -0.196821
-0.258504 0.277900 0.190620
-0.148810 -0.051962 -0.071698
-0.304030 -0.260898 -0.227536
-0.146640 0.119320 0.175214
0.051048 -0.284364 0.199070
-0.017180 -0.117875 0.246110
-0.098179 0.010305 0.230588
-0.147007 0.120144 -0.088995
0.094552 -0.284448 0.186333
-0.040398 -0.242085 0.182081
-0.192776 0.020360 0.128630
-0.098144 -0.135305 0.221801
0.244136 -0.030437 -0.179331
-0.272415 0.264803 -0.246110
-0.118048 0.055001 -0.079724
-0.246821 -0.284746 -0.204318
-0.232347 0.220031 -0.246110
-0.215514 0.274255 -0.227728
0.029234 -0.112609 0.173670
0.120838 0.016290 -0.135393
0.084005 0.008963 -0.129315
0.002239 -0.122931 0.122360
-0.004760 -0.057708 -0.246110
0.011746 -0.005412 0.165009
-0.195308 0.228800 -0.190266
-0.062092 -0.070875 -0.045812
0.315453 0.024978 0.200135
0.253538 -0.293560 -0.201019
-0.150081 -0.049871 -0.164408
0.100857 0.012315 0.139964
-0.158043 0.114252 -0.246110
0.004852 -0.114611 -0.246110
0.174716 0.007189 0.246110
-0.163462 -0.027859 -0.237784
0.099809 -0.095566 -0.213974
-0.163991 -0.005143 -0.246110
-0.040992 -0.118340 0.102366
0.186132 0.029280 -0.115553
-0.192388 0.144709 0.246110
-0.208896 0.028998 0.225330
0.087012 0.009561 -0.187955
-0.189280 0.215239 -0.123053
-0.148516 0.123541 0.029127
-0.276655 -0.237116 0.205299
-0.172628 0.013037 0.246110
-0.070573 -0.021789 -0.136482
0.032482 -0.121310 0.211307
-0.260690 0.276571 0.045478
0.119786 -0.027059 0.246110
-0.253282 0.119890 0.139386
-0.233063 0.086631 0.229722
0.012767 -0.083630 0.246110
0.202465 -0.016938 -0.246110
-0.169680 0.171149 -0.009922
0.068068 -0.097760 -0.186255
-0.165989 -0.038888 0.228517
0.043882 0.000981 0.217167
0.235679 0.039136 0.061425
-0.069521 -0.021580 0.121333
-0.136894 0.097395 0.152867
-0.064544 -0.020589 0.223559
-0.310559 0.214109 0.107883
-0.164551 0.159610 0.196326
-0.068691 -0.056029 0.129047
-0.150275 -0.049551 -0.032565
-0.004274 -0.008599 0.062473
0.259360 -0.024617 -0.239657
0.183867 -0.053482 -0.068686
0.138360 0.019776 0.088083
-0.226055 0.057224 0.204350
-0.107883 -0.137162 -0.187368
-0.056139 -0.084267 -0.088539
-0.218149 0.044220 0.183174
0.257321 -0.284761 0.214850
0.084282 -0.086420 0.246110
0.084693 -0.091404 0.111885
-0.222293 0.051036 -0.185517
0.137255 -0.293560 0.203023
0.241576 -0.284731 0.202089
-0.247022 0.208352 0.246110
-0.198971 0.237040 -0.023056
0.287290 0.049404 0.046263
0.060863 -0.099161 0.246110
-0.050349 -0.097291 -0.064094
-0.004659 -0.125569 -0.176207
0.066128 0.005406 -0.209527
-0.120684 0.060930 -0.198790
-0.051721 -0.228601 -0.181100
-0.166132 0.163167 -0.069462
-0.161880 -0.030462 -0.111094
-0.060887 -0.073586 0.083405
-0.083223 -0.155610 0.222425
0.227793 -0.293560 0.187547
-0.210818 0.050039 0.219022
-0.118385 -0.102009 -0.105056
-0.276201 0.221933 -0.246110
0.290569 -0.012683 0.031719
0.169831 -0.019584 -0.246110
-0.279900 0.264893 -0.190493
-0.151104 -0.283974 0.210009
-0.301520 0.199240 -0.151509
0.223561 0.036726 -0.052169
-0.042964 -0.113903 -0.150096
-0.308431 -0.276073 0.215297
0.154496 0.022986 -0.069280
-0.168810 -0.019063 -0.066425
-0.077492 -0.163360 -0.193159
-0.215567 0.057850 -0.038037
0.038580 -0.118978 -0.188859
0.200516 -0.047117 0.130182
-0.096601 -0.137843 0.008169
-0.054995 -0.018690 -0.075363
0.303122 -0.007883 -0.048883
-0.122164 0.064260 -0.026286
0.127688 0.017653 -0.005647
-0.300834 0.198111 0.065839
-0.028957 -0.134860 0.009594
-0.184252 0.006340 -0.071484
-0.104395 -0.125022 0.174886
-0.196680 0.026783 -0.123081
-0.115526 -0.106712 0.192855
0.082457 0.008655 0.192790
-0.143185 -0.026183 -0.246110
-0.044832 -0.109703 -0.199592
-0.075353 -0.069982 0.246110
-0.241367 0.106752 -0.246110
-0.234019 0.088203 0.016756
-0.145261 -0.057799 0.212142
-0.178800 -0.002629 -0.105973
0.282031 0.010719 0.246110
0.184454 -0.053258 0.025878
-0.093154 -0.143514 -0.228523
0.240666 0.040129 -0.150348
-0.029142 -0.255018 -0.204318
-0.314269 0.244000 -0.146877
0.292342 -0.012005 0.175340
0.110183 -0.081657 0.162926
-0.041689 -0.116771 -0.019687
0.128027 -0.074834 -0.058281
-0.232986 0.293084 0.232625
-0.029169 -0.134941 -0.238544
-0.211827 0.265960 0.111293
0.111402 -0.036066 -0.246110
0.011363 -0.005489 -0.228916
-0.119675 0.058661 0.047460
-0.197036 0.232687 -0.212193
-0.062932 -0.068984 0.032577
-0.274683 0.268064 -0.026753
-0.036271 -0.129864 0.221318
0.164860 -0.041055 0.246110
0.168203 0.025713 -0.000328
-0.117607 -0.121167 -0.199177
-0.110261 -0.115373 0.239343
0.176024 0.027269 0.201946
-0.037326 -0.015175 -0.166008
-0.289597 0.179628 -0.147760
0.175681 -0.056613 -0.019587
-0.139920 0.104203 -0.211891
-0.153217 0.001092 0.246110
-0.238779 0.078155 -0.213032
-0.006376 -0.136168 0.208307
0.254054 0.042792 -0.071453
0.285861 0.049120 0.174988
0.017924 -0.004183 0.240981
-0.298582 0.194407 0.032883
0.142504 0.020600 0.155999
-0.072285 -0.094913 0.246110
-0.132535 0.087589 0.067082
-0.065653 -0.080511 -0.246110
0.107872 0.013711 0.050064
-0.013648 -0.129006 -0.206395
0.223828 -0.038203 -0.227493
-0.121452 -0.096964 0.094668
-0.052821 -0.091730 0.041088
0.029362 -0.284609 0.228517
-0.098744 -0.134317 -0.125600
-0.235672 0.291780 -0.071399
0.108117 -0.082586 -0.181100
-0.207038 0.043822 -0.204599
0.057305 0.003651 -0.120525
0.053729 -0.112840 -0.227536
-0.024780 -0.133262 -0.148866
-0.066750 -0.060395 0.158006
-0.311210 0.215179 -0.075462
0.147881 0.016824 -0.246110
0.160276 -0.284574 0.202888
0.309684 0.042685 -0.034958
-0.047717 -0.142033 0.085315
0.137015 -0.071397 -0.148895
-0.108352 -0.022625 0.246110
0.060337 -0.100716 -0.120006
-0.039232 -0.122299 0.048404
-0.065582 -0.158807 0.208194
-0.178889 -0.002896 -0.227536
0.168083 0.025689 -0.028057
0.071668 0.006508 0.093364
-0.318943 0.240691 0.171677
-0.137969 0.099813 -0.161893
0.191599 0.030367 -0.063159
-0.161808 -0.030579 0.164627
0.175195 -0.056798 0.065471
0.250161 -0.028134 0.106698
-0.161500 0.152747 0.100938
-0.313345 0.218692 0.002918
0.134746 -0.072265 0.029012
-0.276535 0.266939 -0.147215
-0.243878 -0.217038 0.207316
0.072631 -0.096016 0.195087
-0.220189 0.065455 0.105861
-0.224986 -0.284904 0.228517
0.067933 -0.010180 0.246110
-0.269271 0.271354 -0.103483
0.120093 -0.284497 0.223737
-0.238584 0.290010 0.170919
-0.153201 0.034169 -0.246110
-0.295663 0.255311 -0.104416
-0.073166 -0.045964 -0.016287
-0.255307 0.279844 -0.064351
-0.039510 -0.138368 -0.051421
-0.250302 0.261212 -0.246110
-0.258451 0.277932 -0.233283
0.019396 -0.116371 -0.205564
-0.214549 0.168489 -0.246110
-0.186188 0.208284 -0.001854
-0.210039 0.220378 -0.246110
-0.088283 -0.011958 0.141088
-0.155309 0.138822 -0.084682
0.257629 0.043503 0.204003
-0.178675 -0.192107 -0.224096
-0.272840 0.152062 -0.103710
0.066789 -0.108192 -0.203799
0.093066 0.010765 -0.089140
-0.296291 0.190639 -0.077402
-0.110558 -0.285372 -0.204318
-0.153985 -0.043449 -0.203732
0.254307 0.042842 -0.206530
0.201046 0.032247 -0.223747
0.014364 -0.004892 -0.012853
0.218843 -0.040109 0.047774
-0.133550 0.089873 -0.043064
0.212379 0.034501 -0.137932
-0.308245 0.210302 0.172955
-0.219077 0.282270 0.126438
-0.211996 0.119027 0.246110
0.269962 -0.020562 -0.046873
-0.112179 0.041798 0.187240
0.063450 -0.109469 0.204438
0.276646 -0.018007 -0.097658
-0.245418 0.285855 -0.136384
-0.146031 0.085991 -0.246110
-0.290129 0.223806 0.246110
-0.280461 0.164599 0.213922
-0.028306 -0.080495 0.246110
-0.111895 -0.112686 0.129107
-0.217884 0.061663 0.164996
-0.106989 -0.120754 -0.033581
0.258319 -0.025015 -0.133295
-0.190676 0.218381 0.166569
0.094511 -0.087650 -0.028293
0.070442 -0.096853 -0.244212
-0.208343 0.045967 0.047156
0.056229 -0.112230 -0.192838
0.321310 0.005789 0.167892
-0.227533 0.189388 0.246110
0.148992 -0.066817 -0.089965
0.189067 -0.036019 0.246110
-0.244475 0.105404 0.007172
-0.262573 0.135173 -0.094800
0.078405 -0.293560 0.216283
0.099096 -0.085896 -0.083686
-0.300239 0.199946 -0.246110
-0.078797 -0.032268 -0.244673
0.134570 0.019022 0.237313
0.220670 0.036151 -0.012106
-0.035696 -0.147379 -0.192577
-0.232167 0.085157 0.081204
-0.310682 0.246180 0.033568
0.314746 -0.003439 0.027270
-0.218291 0.280501 -0.188940
0.274847 -0.018695 0.089879
-0.144840 -0.058492 0.053630
-0.188031 -0.293190 0.219752
-0.277680 0.266243 0.176900
0.179853 0.028030 -0.198278
-0.048418 -0.142301 -0.224431
-0.120595 0.060731 0.241617
0.276701 -0.017986 0.066617
-0.008577 -0.009455 0.199272
-0.020923 -0.262331 0.201592
-0.316336 0.242743 0.200489
-0.227648 0.077724 0.205868
-0.190015 0.216894 -0.222049
-0.110691 -0.114665 -0.087651
0.217912 -0.040465 -0.045611
-0.037177 -0.284193 -0.221915
-0.016540 -0.130112 -0.127488
0.165073 0.025090 -0.096600
-0.009758 -0.009690 0.095451
0.118455 0.015816 -0.239401
0.319636 0.012141 -0.105264
-0.161078 0.151799 -0.188761
-0.259799 0.130610 0.186479
-0.119369 -0.100390 0.037869
-0.196603 0.026655 -0.080465
-0.123334 0.066892 -0.176390
-0.076468 -0.038535 -0.100954
0.013369 -0.005090 -0.090308
0.019237 -0.116432 -0.143642
-0.038021 -0.125023 0.196249
-0.125253 -0.090711 0.057385
0.095709 0.011291 0.021501
-0.076443 -0.038591 0.178227
-0.167955 0.167268 0.150294
0.127375 -0.284511 -0.197410
0.210054 -0.043470 -0.208178
0.112666 -0.080708 -0.123295
-0.132844 -0.078225 -0.035882
-0.272360 0.151273 -0.046888
-0.130052 0.082004 0.093086
-0.179191 0.142017 -0.246110
-0.133551 -0.077062 -0.112722
-0.129658 0.081117 0.152956
-0.135551 0.094375 -0.137728
-0.087817 -0.151669 -0.157034
0.111384 0.014410 -0.115635
-0.213008 0.268617 0.141306
0.312388 0.034385 0.175388
-0.166616 0.164257 -0.031914
-0.238256 0.077295 -0.183434
-0.166861 -0.040146 -0.187682
-0.112387 0.042266 0.086917
-0.106578 0.029199 -0.006542
0.006718 -0.293560 0.200780
0.009660 -0.120094 -0.055657
-0.152635 0.012488 -0.246110
-0.044024 -0.111519 0.142283
-0.125470 0.071696 0.009573
-0.128429 -0.173602 0.205299
-0.154434 0.114960 0.246110
-0.097355 0.008450 0.100178
0.020269 -0.293038 -0.227536
-0.123054 -0.031735 -0.246110
-0.199568 0.238383 -0.152859
0.049139 -0.284360 -0.195032
0.299934 0.010607 -0.246110
-0.081649 -0.155008 -0.205994
0.059655 -0.074790 -0.246110
0.162546 0.024588 0.231323
-0.216433 0.059276 -0.109850
0.291930 0.050327 -0.045052
0.126266 0.017370 0.104808
-0.319369 0.228601 0.120460
0.278913 0.047738 0.065174
-0.087443 -0.013846 0.025157
-0.068465 -0.202003 0.182797
0.220694 -0.293560 -0.212824
-0.301099 -0.257257 -0.204663
0.230201 0.018788 -0.246110
-0.187397 0.211004 0.075341
-0.054120 -0.088809 0.218200
-0.223028 0.240638 -0.246110
-0.197264 0.027744 0.203304
0.201269 -0.015244 0.246110
0.167323 0.025538 -0.240670
0.188480 0.029747 -0.016634
-0.113283 0.044281 0.129465
-0.162478 -0.029477 0.082265
-0.180559 0.195622 0.218709
0.036670 -0.071239 0.246110
0.135559 -0.284527 0.183407
0.039721 -0.108600 0.122494
-0.032263 -0.014167 -0.235928
-0.159598 -0.034215 0.035305
0.072385 -0.096110 -0.102819
0.052418 0.002679 0.087351
0.047355 -0.105680 0.069472
0.044670 0.001137 0.126670
-0.187692 0.211667 -0.022265
-0.149228 -0.069152 -0.226675
-0.055926 -0.084746 0.172198
-0.153296 0.134292 -0.216231
-0.294883 0.188322 -0.229949
-0.283477 0.262719 0.042016
-0.130799 -0.081589 0.117040
-0.045882 -0.016877 0.019996
-0.225154 -0.293118 0.209124
-0.316326 0.223594 -0.246091
0.170575 0.026185 -0.130784
-0.154287 0.136521 -0.033639
0.097187 -0.086626 -0.006374
-0.140859 0.106315 -0.067861
0.270488 -0.005799 0.246110
-0.241514 -0.226077 -0.208306
-0.228700 0.079455 0.126497
0.265939 0.045157 -0.088173
0.310756 -0.004964 -0.028454
-0.201180 0.242009 0.016292
-0.270157 0.147648 -0.227021
-0.037403 -0.135843 -0.182652
0.248989 -0.028582 -0.070584
0.048699 -0.013124 -0.246110
-0.043934 -0.140586 -0.107059
0.121889 -0.077181 -0.209109
0.313233 0.031792 0.050388
-0.204965 0.040411 0.083301
-0.227525 0.077521 0.155708
0.024943 -0.114250 -0.079101
0.313988 0.029476 0.089175
0.256030 0.043185 0.012200
-0.121558 0.062897 0.096611
-0.230056 0.081684 -0.078457
0.250207 0.034083 -0.246110
-0.043277 -0.113199 0.083032
-0.311887 0.244822 0.246110
0.019532 -0.043527 -0.246110
-0.201285 0.034358 -0.043607
0.022639 -0.125074 0.187995
0.026692 -0.002439 -0.110853
0.169731 -0.058888 -0.086329
-0.084197 -0.021147 0.213310
-0.145264 0.116223 0.075975
-0.143938 -0.046227 0.246110
0.074103 0.006993 0.149796
0.199256 -0.047598 -0.087197
-0.192586 0.100548 -0.246110
-0.047889 -0.017276 0.129562
0.269907 0.000850 -0.246110
-0.134369 -0.075715 -0.204900
-0.067824 -0.021242 0.143794
0.023136 -0.003146 0.204588
0.267624 0.024058 0.246110
0.187971 -0.051914 -0.233985
-0.217577 0.112994 -0.246110
-0.257314 0.278624 0.102508
-0.285895 0.173538 0.146636
-0.276567 0.170016 0.246110
-0.209915 0.261659 -0.161913
0.256019 0.043183 0.151226
0.277275 0.047412 -0.116486
0.093462 -0.088051 0.030645
-0.271286 0.149507 0.101735
-0.218740 0.281512 -0.209467
0.309413 -0.005478 0.150705
-0.276443 0.157990 0.045781
-0.144497 -0.062472 0.228517
-0.098467 0.010951 -0.214266
0.115538 -0.079610 -0.171451
-0.227384 0.059411 -0.220557
-0.039722 -0.138519 -0.073433
-0.307569 0.248073 0.157159
0.149121 -0.066768 -0.175067
-0.174166 -0.010253 -0.146430
0.177103 -0.290140 -0.181100
0.185458 0.029146 0.138750
-0.213739 0.054844 -0.089882
-0.133054 -0.077880 0.202157
0.102431 0.012628 -0.071784
0.038564 -0.000077 -0.177750
0.152857 -0.065340 0.116821
-0.094194 0.001340 -0.062997
-0.283303 0.169274 0.116531
0.273135 -0.019349 0.213243
-0.088217 -0.147088 -0.246110
-0.100400 -0.089528 0.246110
-0.189068 0.214763 0.202436
-0.304791 0.249761 0.072948
-0.028074 -0.013334 -0.016515
-0.102945 -0.127408 -0.224878
-0.087814 -0.170175 -0.183480
-0.290417 0.180976 0.187423
-0.004482 -0.008641 -0.201092
0.114390 -0.089991 0.224782
-0.089609 -0.008975 -0.032671
0.159226 0.023927 -0.163996
0.163693 -0.061197 0.040861
-0.018950 -0.131033 0.111950
-0.095674 -0.170313 0.225408
-0.089051 -0.150197 -0.137520
-0.099239 0.012689 0.039790
-0.188591 0.013477 -0.202267
-0.197261 0.027739 0.036072
0.100579 0.012260 -0.000511
0.125888 0.017295 0.168791
-0.251934 0.281894 0.062184
0.228402 -0.036454 0.088206
-0.171870 0.176075 0.128016
0.292852 0.050510 0.078586
0.199045 -0.047679 -0.133178
-0.081589 -0.027015 -0.082810
0.309340 0.043738 -0.218129
0.298583 0.051620 -0.164548
0.317614 0.018345 0.225595
-0.197308 0.158235 -0.246110
0.093878 0.010927 -0.234808
-0.208741 0.259018 0.200471
0.208207 -0.044176 0.175460
-0.184354 0.204159 -0.051628
0.081988 -0.102381 0.184793
-0.278122 0.160751 -0.179797
0.018446 -0.004079 -0.142382
-0.096866 0.007350 0.211422
-0.184740 0.007142 0.116885
0.158105 0.023704 0.027795
-0.148020 0.122424 -0.162339
-0.029515 -0.013621 -0.124797
-0.038600 -0.119341 -0.246110
-0.181240 0.197153 -0.188423
0.140640 -0.284536 -0.183895
-0.124687 -0.091642 -0.048985
-0.125240 -0.090733 -0.188979
0.222762 -0.038610 -0.162359
0.305509 -0.006971 -0.180222
-0.246799 0.285016 -0.182936
0.011494 -0.119393 -0.008835
-0.097786 -0.006490 0.246110
0.178151 -0.055668 0.174253
-0.142534 -0.062285 0.171880
-0.248643 0.112260 0.113943
-0.005990 -0.126078 -0.075031
-0.217339 0.278361 -0.006263
0.208047 0.033640 0.093033
-0.141471 -0.064034 0.083230
0.140070 -0.080172 0.201316
0.305592 -0.006939 0.099488
-0.052812 -0.091751 -0.017172
0.300631 0.005935 0.246110
0.124925 0.017103 0.209269
0.052754 -0.103616 0.136380
0.063226 0.004829 0.218992
-0.224661 0.291772 0.184213
0.296871 0.051310 -0.189914
-0.288564 0.177927 0.015391
-0.074308 -0.192392 -0.198797
-0.094645 -0.141061 0.131711
-0.124391 -0.092130 -0.122381
0.186322 -0.293498 0.182081
0.005000 -0.121876 0.144895
-0.234852 0.089575 0.190112
0.059814 0.004150 -0.233324
-0.042133 -0.036654 -0.246110
0.249980 0.041982 -0.005874
-0.045723 -0.059403 -0.246110
0.158912 0.023865 0.180340
-0.055316 -0.086117 -0.151707
0.272252 0.046412 0.139453
-0.261622 0.133610 -0.007182
0.048900 0.001979 -0.055112
0.087680 -0.090262 -0.136135
0.300575 -0.008857 -0.127343
-0.217930 0.061738 0.063581
-0.063354 -0.068037 0.198173
-0.194909 0.227903 -0.171259
-0.077552 -0.036096 0.077988
-0.012973 -0.010330 -0.162979
0.283370 0.048624 -0.005888
-0.247242 0.109955 0.154414
0.225484 -0.037570 0.201447
-0.173482 0.110053 0.246110
-0.040305 -0.119885 0.229463
0.006623 -0.293560 -0.205503
-0.270701 -0.283743 0.219326
-0.075253 -0.284457 0.228517
-0.065136 -0.064027 -0.190834
-0.265949 -0.285619 -0.227536
0.210827 -0.293560 -0.192114
0.219974 -0.039676 -0.090547
0.187080 -0.030208 -0.246110
-0.171042 0.174213 0.053439
0.300815 0.051708 0.232764
-0.265603 0.140157 0.137155
0.309454 0.043391 0.110808
-0.181732 0.002194 0.144082
-0.221511 -0.293125 -0.226181
-0.195892 0.230114 0.120375
-0.182570 0.003572 -0.026181
-0.232973 0.132407 -0.246110
0.320886 0.008288 -0.218416
-0.158440 0.145864 -0.149314
-0.198897 0.033804 -0.246110
0.193172 0.030680 0.004061
-0.248729 0.210847 -0.246110
-0.024611 -0.133198 0.043938
-0.032417 -0.014198 -0.073873
0.159596 -0.062763 -0.012171
0.269704 0.045906 0.166044
-0.101425 -0.129907 -0.165584
-0.299191 0.195408 -0.177327
0.171819 -0.058089 -0.167024
0.319596 0.012263 -0.133926
-0.136090 -0.185766 -0.208932
-0.210138 0.262161 0.046232
-0.208952 0.259493 -0.125435
-0.069625 -0.021600 0.244518
0.172959 -0.293560 0.213158
-0.250991 0.116122 0.077222
0.194700 0.012835 0.246110
0.320153 0.010553 0.050120
0.018047 -0.116887 -0.102426
-0.289702 0.179799 -0.114878
-0.179076 -0.283920 0.206335
0.141978 0.020496 0.120682
-0.078811 -0.032178 0.107184
-0.156682 0.141909 -0.129168
-0.070538 -0.150759 -0.230199
-0.037594 -0.138162 0.199094
0.129509 -0.074267 -0.014781
0.112536 -0.080757 -0.071995
-0.168592 0.168701 -0.189945
-0.240388 0.288913 0.079446
-0.077932 -0.051130 0.246110
0.015872 -0.004592 0.141779
-0.140145 0.104708 -0.242067
-0.024402 -0.100892 0.246110
-0.189609 -0.002729 0.214775
-0.085752 -0.017651 -0.232554
-0.256731 0.125564 -0.133891
-0.128347 -0.085622 -0.175812
-0.099830 0.014019 -0.160066
0.054663 0.003125 0.153676
-0.116251 0.050959 -0.123986
0.074883 0.007148 -0.109355
-0.125375 -0.108389 0.207425
-0.206914 0.254908 -0.051922
-0.271559 0.269964 0.021832
-0.255302 0.279847 -0.215290
-0.169410 -0.188564 0.216060
0.278204 0.047596 0.201215
0.269389 0.035349 -0.246110
0.014585 -0.118211 -0.165362
0.296892 -0.010266 -0.164415
-0.027306 -0.134228 0.164951
-0.191819 0.220951 -0.244769
-0.059577 -0.076533 0.118174
-0.158074 0.145042 -0.062941
-0.126755 0.074587 -0.086452
-0.179316 0.078862 0.246110
-0.187900 0.012339 0.168370
-0.173447 -0.011434 0.007073
-0.264530 0.213434 0.246110
0.309241 -0.005544 -0.066866
-0.320934 0.231794 -0.210449
0.196214 -0.048762 -0.014941
0.210735 -0.043209 0.115628
0.139193 -0.070564 -0.200863
-0.054362 -0.291042 0.228517
-0.104263 0.023991 0.196877
0.016056 -0.117648 0.218168
0.291843 -0.012196 -0.081704
-0.313862 0.244247 -0.100727
0.072629 -0.096016 0.134056
-0.087191 -0.014413 -0.156288
-0.026378 -0.133874 0.074172
-0.235265 0.090253 -0.150973
-0.090126 -0.007811 0.103592
-0.068381 -0.056728 -0.232922
-0.025488 -0.133533 -0.081130
-0.158449 -0.292119 -0.204318
-0.085501 -0.153294 0.101555
-0.298587 0.253533 -0.218067
-0.303545 0.250519 0.231095
-0.000165 -0.133793 -0.191905
-0.101791 0.018430 -0.196690
-0.128242 -0.085795 -0.224015
-0.283066 0.168884 -0.220777
-0.127924 -0.086317 0.077560
-0.194570 0.227141 0.079113
-0.232952 0.086449 -0.097977
-0.190272 0.217471 0.097431
0.240671 -0.031763 -0.227343
0.082189 -0.291160 -0.181100
0.233409 -0.034539 0.032526
-0.057871 -0.145915 -0.134346
-0.047325 -0.104094 0.169530
0.252861 -0.004895 -0.246110
-0.135705 0.094721 -0.178971
-0.170170 -0.034704 0.210713
-0.218294 0.277711 -0.246110
0.236789 -0.284721 -0.207691
-0.146335 0.118633 0.156604
0.279394 -0.016956 -0.243342
-0.205132 0.250901 0.151589
-0.070413 -0.052156 -0.136121
-0.150099 0.127102 0.001548
-0.321329 0.233885 -0.046055
-0.115040 -0.107511 0.055904
-0.102927 -0.127436 0.203804
0.281839 -0.016021 -0.009207
-0.262320 0.183517 -0.246110
-0.070087 -0.052890 -0.062275
0.240224 0.040041 0.142497
-0.151566 -0.047429 0.000715
-0.289466 0.259078 0.222031
0.105461 0.013231 -0.040964
0.281689 0.048290 -0.141414
0.202687 -0.293560 0.223275
0.101878 -0.084833 -0.105514
0.240529 0.040101 -0.056334
0.279291 0.047813 0.118888
-0.213752 0.054866 -0.143731
-0.123178 0.066540 0.224395
0.091601 -0.088762 -0.164849
-0.249186 0.113152 -0.164993
-0.191538 0.220321 0.219162
0.163751 -0.061174 0.210039
-0.262426 0.134931 -0.217362
0.212066 0.030622 -0.246110
-0.073368 -0.045508 0.056557
-0.271640 0.269914 -0.087142
-0.160301 -0.050938 -0.218493
0.260282 -0.024264 -0.032509
-0.206487 0.253948 -0.194952
-0.302866 0.250932 0.190280
0.199242 -0.047604 0.038523
-0.033287 -0.241992 -0.189224
0.237862 -0.032837 -0.023776
-0.019698 -0.264345 -0.188300
-0.076981 -0.174739 -0.204318
-0.066238 -0.061548 0.017257
-0.277131 0.159121 0.063347
-0.276370 0.157869 -0.087480
-0.144424 0.114334 -0.009262
-0.103646 0.022602 -0.242617
-0.220053 0.284466 -0.105784
0.145433 -0.068178 -0.054285
-0.191896 0.069292 -0.246110
-0.099098 -0.133736 0.025074
-0.310988 0.214814 -0.167751
0.233247 0.038653 -0.090616
-0.050478 -0.143089 0.102610
-0.208674 0.258867 0.169527
0.111281 -0.081237 0.187173
0.023314 -0.114873 0.157324
-0.061219 -0.072838 -0.011987
-0.058282 -0.079446 -0.131343
-0.182886 0.004093 0.080259
0.271630 0.046289 0.037019
-0.274352 0.268266 0.226953
-0.078904 -0.153894 0.117761
-0.056629 -0.083164 0.026120
-0.071785 -0.151236 0.041338
0.014639 -0.045690 0.246110
-0.178167 -0.003671 0.099451
-0.094239 -0.141727 0.201087
-0.232039 0.126254 0.246110
0.148389 -0.284551 -0.214357
-0.072692 -0.142721 0.246110
-0.146960 -0.055005 0.015740
0.133145 -0.072877 -0.098661
-0.168026 -0.020352 -0.222740
0.069565 -0.097188 0.003158
-0.310967 0.246007 0.088782
-0.001001 -0.124170 -0.019964
0.223362 0.036686 0.241906
-0.017561 -0.011243 0.164305
0.202991 -0.287365 -0.227536
-0.176122 0.185640 -0.037155
-0.076777 -0.293404 -0.204450
-0.172621 0.177765 0.008631
0.217319 -0.284684 0.226228
-0.165985 0.162836 0.075331
0.094748 -0.031181 -0.246110
0.164456 0.024968 0.117872
0.072649 -0.293560 -0.201435
-0.286824 0.175066 0.163870
-0.078455 -0.033829 0.034698
0.260819 0.044138 -0.187229
-0.052057 -0.018105 -0.002812
-0.178762 0.191579 -0.099735
-0.315957 0.242974 -0.164066
-0.172367 0.177195 0.237950
0.083080 0.008779 -0.210127
-0.205593 0.251937 -0.084269
-0.280918 0.165350 0.079883
-0.159633 -0.034159 0.107904
-0.192559 -0.283894 -0.206761
0.023181 -0.114924 0.039026
-0.139755 -0.066857 -0.240872
-0.268016 0.144127 0.167381
-0.050164 -0.097707 -0.163334
0.233873 0.038777 -0.167756
-0.228171 0.293322 -0.145183
-0.230811 0.293519 -0.119676
-0.164351 -0.026398 0.196835
-0.177711 0.036374 0.246110
-0.059014 -0.034993 0.246110
-0.221172 0.075339 -0.246110
0.125152 -0.075933 0.012660
0.116767 0.015480 -0.096401
-0.017972 -0.078178 -0.246110
-0.260100 0.131105 0.030586
0.205286 -0.045293 -0.161833
-0.194319 0.226576 0.029632
0.035370 -0.110263 -0.105836
-0.253080 0.119558 -0.057280
-0.179445 0.193115 0.112744
0.042689 0.000743 -0.010445
0.019120 -0.003946 0.108009
-0.151949 0.131262 0.241697
0.004229 -0.065998 0.246110
0.090134 -0.089323 0.047324
-0.208013 0.045424 0.135826
-0.027216 -0.013164 0.017257
-0.049225 -0.099820 -0.089541
-0.231946 0.293380 -0.239163
-0.159543 0.148345 0.004328
-0.042190 -0.139920 -0.202218
-0.137399 0.098532 0.225932
-0.181354 0.001573 -0.186632
0.241989 0.040392 0.209916
0.156831 -0.284567 0.225936
-0.238354 0.290150 0.002541
0.054873 -0.102806 0.104899
0.245707 0.041132 0.091618
-0.161238 0.152158 0.230118
-0.226603 0.167480 0.246110
0.023784 -0.114693 -0.028129
-0.286006 0.173720 -0.236713
0.198442 -0.047910 -0.048183
-0.101537 -0.129724 0.120849
0.260889 -0.024032 -0.172650
-0.248972 0.283695 0.159194
0.101211 -0.069313 0.246110
-0.103200 0.021599 0.026006
0.075464 -0.048972 0.246110
-0.084923 -0.019514 0.040828
